0.8625231789 0.1672753787 -0.4775695903
-0.1470103755 0.8904519035 0.4306777879
-0.4431900174 -0.2651494562 -0.8563167489
0.0339706908 0.1415973452 0.9893412879
0.9651797737 0.1326581670 0.2254546852
-0.1421644554 -0.0274012093 0.9894637140
-0.3781815042 -0.1394104019 -0.9151740215
-0.8614632248 0.4443607647 0.2458142043
-0.0664800151 0.3908170545 0.9180645062
-0.5344786095 0.0645655309 0.8427122333
-0.3162113474 0.4873805203 0.8139229769
0.2703471705 0.6128354422 -0.7425261801
0.1918203554 0.0406879815 -0.9805862733
0.0572163579 -0.2843637965 -0.9570075860
0.0157156729 0.2128660938 0.9769549855
-0.0175596800 -0.0529031592 -0.9984452481
-0.3422086389 -0.8066830361 0.4818254110
0.0184191078 0.0676763152 -0.9975372940
-0.4805695108 0.7527536848 -0.4499053626
-0.4415885312 0.0437421079 -0.8961507669
0.7947093419 0.3729297720 -0.4789159081
-0.2558006227 -0.3500020122 0.9011462883
-0.3665246018 -0.1138360696 -0.9234181423
0.0684432578 0.0409060990 -0.9968160370
-0.0622425847 0.0407773967 -0.9972276894
0.6241782627 0.0153366345 -0.7811314128
0.7761143563 0.4441185363 0.4476664289
-0.9476106593 -0.1734761746 -0.2682164334
0.0253528910 0.6552765243 0.7549635141
0.0445325813 0.0812514919 -0.9956982697
-0.1813704076 0.5622630991 0.8068240097
0.1062241229 0.0142352307 0.9942403099
0.0086185034 -0.1256982259 0.9920310869
-0.6808841450 0.2271209291 0.6962850455
-0.2324607246 0.5778325479 0.7823500228
-0.6988527525 0.4368918343 0.5663306062
0.8894106375 0.3713669773 -0.2665244567
-0.1721680910 0.7829270611 0.5978154945
-0.9680359087 -0.1499536825 -0.2010481845
0.2636692855 0.1139302862 -0.9578613667
-0.8865810484 -0.2860390813 -0.3635322388
-0.7445567595 -0.3158185994 -0.5881274046
-0.2837038783 0.9136385024 -0.2911645521
-0.8024738485 0.4742818625 0.3620668963
-0.6520174298 -0.7564360653 0.0517469830
0.8498521243 0.2717406610 -0.4515621551
-0.6348425867 0.6787123314 0.3692214257
-0.0493574512 0.1954293705 0.9794749630
-0.4559032032 -0.6352718320 -0.6233634324
-0.9168109756 0.1738345979 0.3594984947
0.8639595229 -0.2476369368 0.4384631003
-0.8987710094 -0.1761505952 0.4014743336
0.3620543107 0.6725826049 -0.6454063183
-0.4068604228 -0.1773796563 0.8961032607
0.7541584193 -0.6276630664 -0.1930910501
-0.9080060094 0.0840338694 -0.4104429261
0.1807662774 -0.8558667555 -0.4845778057
-0.0509241285 -0.5178433061 -0.8539584553
0.5721080699 -0.5297499435 -0.6261448345
-0.0859984124 0.3202245578 -0.9434301806
-0.1978012149 -0.1383855431 -0.9704247116
0.9245777434 -0.2871435806 -0.2504087868
-0.7229776392 0.1983425130 -0.6617881690
0.5841563719 0.2612353850 0.7684513041
-0.2862500815 0.5717208924 0.7688927832
0.1334524344 0.5885011009 -0.7974063594
-0.1280487198 0.0506304051 0.9904746778
0.0599430798 -0.5150756096 0.8550461646
-0.7603963957 0.6439345133 -0.0845320292
-0.1988764426 0.1914706757 -0.9611384608
0.4826262930 0.6557188893 0.5806070957
0.9194612935 -0.3613277224 0.1550264711
0.0577332923 -0.8068412548 0.5879405213
0.5571772165 -0.1697267671 0.8128630721
0.7174734335 0.4439922726 -0.5367520229
0.3213549424 0.7639887885 -0.5595106183
0.2645029239 -0.2101862429 0.9412013316
-0.0009974208 0.0024333037 0.9999965421
0.5352041833 0.0916318796 -0.8397381025
-0.0171301023 -0.1973834124 -0.9801766923
-0.0772222764 -0.0961516549 -0.9923666557
0.2096299398 -0.0505778261 0.9764717978
-0.7606352437 -0.0043231077 -0.6491651075
0.7678773737 -0.5690865185 0.2941171082
0.0500945342 0.0410358482 0.9979010957
0.0367820852 0.8423831622 0.5376222524
0.0846286094 0.9134748673 -0.3979970670
0.5142746345 -0.7164520959 -0.4714000368
-0.1103134286 0.8488345275 0.5170211721
-0.3214290329 -0.1976109949 0.9260849159
-0.6355885476 -0.4224691373 -0.6461787881
0.3586180795 -0.2882477728 0.8878661467
-0.0008471012 -0.0122292750 0.9999248608
0.2884475297 -0.1788016311 -0.9406529643
-0.7858658050 0.6140961268 -0.0728071679
-0.1591604844 0.0033363791 0.9872470860
0.4689674984 0.8788291608 -0.0879135463
0.2907362337 -0.3447786554 0.8925245774
0.5532780963 -0.6311601537 0.5436177043
-0.2110785421 -0.3516910406 -0.9120083668
0.2552732755 0.6080067435 -0.7517734730
0.8254519885 0.5099226823 -0.2420906293
-0.4531986183 0.0950437242 0.8863282140
-0.3225645555 0.5835028484 0.7453029810
0.0901507126 0.0020870560 -0.9959259477
0.3282467205 -0.9346078329 -0.1369755058
0.2381471766 -0.6459563535 -0.7252767138
0.2935894314 0.9312849355 0.2156701525
0.8773637308 0.3678114335 0.3081357382
-0.0415101510 0.1605708038 -0.9861510657
-0.8033359655 0.1307878603 -0.5809869725
-0.4768898789 -0.3535572666 -0.8047193937
0.1412985434 -0.6476445882 -0.7487263913
-0.6099011733 -0.7383792166 0.2877788931
-0.0681843365 0.0202091914 0.9974680370
-0.3686922804 -0.0987885467 0.9242871986
0.0239639877 0.0018629195 0.9997110867
0.8604687551 -0.3244985425 0.3928030262
0.3665359705 -0.2438210905 -0.8978878873
-0.0385757848 0.7391647379 -0.6724190651
0.6971367636 0.0535936422 0.7149322027
-0.3866472086 0.0761635277 0.9190772835
0.5367202912 0.2293287082 0.8119973354
-0.4468539208 -0.4298585114 0.7845656337
-0.6594813651 0.7172289913 -0.2250930987
0.2242516387 0.0297017260 0.9740785441
-0.5309472960 0.1557294942 0.8329725647
0.1430999696 0.7020536133 0.6975981097
0.0436746902 0.0668065790 -0.9968096119
0.9961401288 0.0145714483 0.0865593245
0.4548503600 0.2138693610 0.8645062443
-0.3128208617 -0.7100240993 0.6308794552
0.5606355887 0.8277781349 -0.0217047471
0.9582996201 -0.1613141063 0.2358804722
0.3541652716 0.1844325530 0.9168160087
0.2509178188 -0.1483998909 -0.9565655862
0.1472378490 0.0482206268 -0.9879249906
0.4796112583 0.1470333113 -0.8650747056
0.2132023550 0.9516942394 0.2209588890
-0.1296323558 -0.0557872385 0.9899915335
0.8585382159 0.3661766490 -0.3589244957
-0.0203637215 -0.1706592688 -0.9851196541
-0.1586754086 0.0486592048 0.9861310240
-0.3263438049 -0.0251494808 0.9449165173
-0.1580009084 -0.5098848782 -0.8456081385
-0.0495498463 0.0188223628 0.9985942777
-0.4312836778 0.4977755815 -0.7524718332
-0.6911346434 0.4784315973 -0.5416974353
-0.4256437458 0.8681618703 0.2551908477
0.3661516459 -0.8076094301 0.4622769523
0.4385568072 -0.7880700187 0.4319879310
-0.3675896788 0.9015094679 -0.2283823711
-0.7927531707 0.1307645196 -0.5953511996
0.2564464958 -0.4360272806 -0.8626212410
0.5511673014 0.5692029852 -0.6101004569
0.0138384961 0.1560399004 0.9876538085
0.7224142472 -0.1804410398 -0.6675018251
0.4021428496 -0.1771813977 -0.8982693810
-0.1544564608 0.9520343630 0.2641472569
-0.2739391906 -0.4318126404 -0.8593574131
-0.0309504186 0.3977914003 0.9169536921
0.2607296464 0.1400531064 -0.9551990258
0.0002237586 0.2868409116 -0.9579782050
-0.5580311647 0.6305145401 0.5394929415
0.3235359852 -0.5636990280 -0.7599788629
-0.2300140537 0.1483322572 0.9618165504
0.8751274120 0.1529272602 0.4590917837
0.0648031324 -0.9289597395 -0.3644644791
0.3428185166 0.3474110438 0.8728006825
-0.4347691994 0.4176769889 0.7978230857
-0.2367685423 -0.2221806219 -0.9458205055
-0.0148855420 0.0017574992 -0.9998876596
-0.1800268461 0.5930838766 0.7847559175
-0.0634181293 -0.0674093417 0.9957078495
0.0145947069 0.4161073633 -0.9091983594
-0.5347598300 -0.5242947931 -0.6626815934
0.3818682906 0.9207109251 -0.0804238836
-0.9352616672 0.1821993014 0.3034617414
-0.6571115320 0.3666147577 -0.6586334746
-0.1319673074 0.4580882802 -0.8790561741
-0.6826937523 0.5761262051 -0.4494528189
-0.0158179198 0.0330249198 0.9993293492
0.5665895969 -0.7976886938 0.2065647027
0.0654734670 -0.8984402716 -0.4341869453
-0.0267122050 -0.9738944607 0.2254241282
0.0657511341 0.8803328642 0.4697774331
-0.8865322582 0.2988812981 -0.3531720895
-0.1077101955 -0.9899881292 -0.0912250946
0.6089036498 -0.7775877162 0.1568237509
-0.0952362030 0.9516899959 0.2919181690
-0.9651531415 0.2474041802 0.0852677265
-0.7201246540 0.6458755330 0.2535059735
0.3410991725 -0.3887388619 0.8558816809
0.4291062933 -0.7243571251 0.5396059158
-0.4532084237 0.8403216144 -0.2974251318
-0.7215591447 0.4744435538 0.5042377565
0.0064665111 0.1504767325 0.9885924020
0.2811934905 -0.7264030892 0.6271114517
0.5198501365 0.5542856722 -0.6500178684
0.4885387095 0.2001771938 0.8492696983
-0.3150476662 0.6353733277 0.7050146825
-0.5728034610 -0.3694255282 -0.7317246573
-0.1460544397 -0.3636337865 0.9200209617
-0.1652259714 -0.0976125830 -0.9814133492
-0.0934481110 -0.0507666402 0.9943290194
0.2884901488 -0.2607971414 -0.9212807852
-0.2442604632 0.9252795426 -0.2901630475
-0.1336490630 -0.6228402319 -0.7708488655
0.0470161601 0.0177207301 -0.9987369305
0.4106372414 -0.6286994563 -0.6603893167
0.5761973998 0.7925051153 -0.1998304246
0.7414041438 0.4913108641 0.4570924746
-0.4333472124 0.8019504844 0.4112002116
-0.9453776741 0.3080252126 0.1066842150
0.5108938400 0.0287975871 -0.8591613255
0.2612184641 0.5045395957 -0.8229244864
0.9862855884 -0.0695121481 0.1496956890
-0.8357271340 -0.5473698746 -0.0441177742
0.9160568861 -0.0666924304 0.3954641591
0.1255806965 -0.9116836320 -0.3912319565
0.8248762923 0.4651198432 -0.3213139179
-0.6638249195 0.2425175095 0.7074756065
0.4418388354 -0.2177230802 -0.8702730054
0.2188381155 -0.0017551487 -0.9757596008
0.6053599113 0.6317157250 -0.4842257951
0.2904171186 0.9076357082 0.3030764234
-0.3475921420 0.1867330272 0.9188636892
-0.1090483686 -0.3543186655 0.9287447101
-0.1097778351 -0.0977451917 0.9891383647
0.0410069253 0.7101152526 0.7028902903
0.8892147896 0.3693810384 0.2699161100
-0.2566803216 -0.2576723963 -0.9315149750
-0.0107349211 0.7682098491 0.6401081074
-0.7180067914 -0.6053753336 -0.3434922894
-0.0017841828 0.2089775593 0.9779188087
0.0971078743 -0.2109589546 0.9726594369
-0.9459225517 0.1036772195 0.3073785294
0.1364845001 -0.9514719182 0.2758136511
0.3087835649 0.7278644835 0.6122630184
-0.9911071427 0.1128729974 -0.0704721091
-0.1172304444 -0.0127550096 0.9930228258
0.7631623476 -0.0153704631 0.6460239779
-0.9387226472 -0.2084534096 0.2744940210
0.9377383306 -0.3470149520 -0.0150813252
0.1991269146 -0.4723677400 -0.8586135278
-0.4961618361 -0.0468351117 0.8669659190
-0.8212368458 0.5611577912 -0.1033052587
0.0785827738 -0.0516748689 -0.9955674038
0.9790544766 -0.1926906793 -0.0657467409
0.7765367300 -0.0028457098 -0.6300655593
0.5519464025 0.6470730639 0.5259768233
-0.0932385673 -0.0421181749 0.9947525466
-0.0999316859 -0.0830531900 -0.9915219744
0.0182082865 -0.8998618326 0.4357948378
0.0319471924 -0.0143052010 0.9993871813
-0.1467360550 -0.2731487259 0.9507146279
0.1624660167 -0.1282556752 0.9783431275
-0.6699641324 0.2538412217 -0.6976479739
0.9492824466 -0.0914203616 -0.3008407453
0.0801813824 -0.0772612595 0.9937814869
-0.0169513064 -0.1454895995 -0.9892145519
-0.0046263597 0.6286339881 0.7776875374
0.0226867408 0.0521403294 0.9983820400
0.3243966786 -0.6428389944 0.6939198961
-0.4184559213 -0.2047404911 0.8848592957
-0.1491613698 0.0828145950 -0.9853388395
0.9422733521 -0.2300515626 -0.2433047647
0.9808829428 -0.1829083722 0.0664317693
-0.0147702078 0.1866882709 -0.9823081647
-0.0546353704 0.7120336701 0.7000164491
-0.1262980089 -0.0490592487 0.9907784834
0.2392159064 -0.4348005129 0.8681729460
0.6659820307 -0.4799453799 0.5710694942
0.2837618132 0.5549106745 -0.7820187828
-0.5686283769 -0.7365858466 0.3662008460
0.0455663194 0.0529672837 0.9975561024
-0.0080403011 0.0863185754 0.9962351415
-0.6375710439 0.3576888397 0.6823209347
-0.9246741889 0.0173217398 0.3803650900
-0.9894858974 -0.1181502861 0.0834156384
-0.7126276939 -0.6808754212 -0.1690278992
0.2241617157 -0.8517046740 -0.4736567042
-0.7505481925 0.3922619467 -0.5317969311
0.0137715608 -0.0381711990 -0.9991763126
0.1537433558 -0.6137630414 -0.7743758193
0.1300558508 -0.8231516612 -0.5527267122
-0.4890812169 -0.8611719873 0.1385004391
-0.3607009151 0.5158098074 -0.7770682676
0.9034435013 0.3812254164 -0.1961046198
0.7157372326 0.3748468076 -0.5892453518
0.3632509455 0.1988274497 0.9102287602
-0.5141092430 -0.8577171983 0.0035908291
-0.6931181804 -0.5851001075 0.4210048125
-0.0826695947 -0.9353822544 -0.3438397539
-0.4397365633 0.6027854374 0.6657938655
-0.6363748097 -0.1514476673 -0.7563667799
-0.1007710242 -0.8602033877 0.4998953215
-0.6503086118 0.0395755659 -0.7586385727
-0.1888301337 0.6769346957 0.7114088827
-0.6989592336 0.3198773088 -0.6396362224
-0.2400519149 0.7201571735 0.6509598479
-0.8923531322 0.2327861479 0.3866736309
0.1638013268 0.8168874565 0.5530497344
0.4199039929 -0.8550924696 -0.3041340250
0.2916821218 0.2571768924 -0.9212934309
0.5129325861 -0.2048395141 -0.8336311748
0.3750801040 -0.2229520304 0.8997818112
0.1329519299 -0.8589139174 -0.4945610851
-0.8228024303 -0.4434163874 0.3554969311
-0.4419678391 -0.5581904535 -0.7022021410
-0.3764605910 -0.7933167095 -0.4784621426
0.0843579844 0.1375866312 -0.9868909004
0.2381302791 0.1696400514 -0.9563034158
0.0325730293 -0.0144413935 -0.9993650204
-0.5341711940 0.7482419071 0.3934401911
0.1763359053 0.9157559445 0.3609663399
-0.2935611671 0.0309448427 -0.9554393010
0.4809945303 0.8752384217 -0.0510094805
-0.7483706866 -0.1691840537 0.6413408388
0.9548066406 0.2632730216 -0.1379550475
0.2057524881 -0.9668195513 0.1514129086
-0.3713587798 0.9071364287 0.1979801918
-0.9198705546 0.2974890259 -0.2556138537
-0.0030582642 0.1760068328 -0.9843841942
-0.3166678776 0.9238251684 -0.2151011703
0.9714099024 0.0588618782 -0.2299958277
-0.1471279787 0.3410728224 -0.9284517692
-0.0811750376 -0.1043584129 0.9912214359
0.5300974131 -0.5324768858 -0.6598977941
0.2902221615 0.5368998711 -0.7921550513
-0.6712110673 0.7344088100 0.1005952431
-0.5528536035 -0.3188512420 -0.7698615321
0.1678915957 -0.7252856855 0.6676624046
0.0585661996 0.0011382096 0.9982828781
-0.1883908433 0.8521852423 -0.4881487509
0.6897305085 -0.3215494679 -0.6487509270
-0.3207514210 0.6538744123 0.6852494282
-0.2139240195 0.3331967681 -0.9182681676
0.4610213998 0.0138243635 -0.8872813285
0.4847991210 0.3610063904 -0.7966455915
0.6361481151 0.4829062514 -0.6017616871
0.4211168048 0.5376578806 -0.7304687811
0.2225749005 -0.2238191281 0.9488758673
0.2151621839 -0.2793511527 -0.9357714294
0.7083874704 0.5210915460 -0.4760785570
-0.2454099153 -0.0315197926 0.9689068460
-0.0571821664 0.2815207930 0.9578498019
0.0111694182 -0.0602138529 0.9981230065
-0.4886919955 0.4842007155 -0.7257615316
0.6525206320 -0.5175192400 -0.5535256642
0.4365058126 0.7051566290 0.5587636389
-0.0763713711 0.0658677914 0.9949014261
0.0630432452 -0.1255202714 0.9900859613
-0.6451447498 0.6824955627 -0.3434938992
0.8107170652 -0.2466068121 0.5309641423
0.7876290709 0.1682886975 -0.5927219929
0.1278748965 0.7873054715 0.6031567834
-0.1279567346 0.1565867441 0.9793404238
-0.5331933557 -0.1947690502 -0.8232677952
0.7002717863 0.4876312654 -0.5213781490
0.6825239452 -0.2390117276 0.6906768118
-0.1413747387 0.6955575348 -0.7044238064
-0.6616945120 -0.7294809583 0.1732567582
-0.4241448657 0.7425310032 0.5184099171
-0.4511483880 0.6662044431 0.5938322760
0.1853606184 0.4419064056 0.8777016406
-0.0444527669 0.1696254012 0.9845055484
0.2504413168 0.0136295000 -0.9680358379
0.2597979544 0.8487649054 -0.4605465865
0.4058539191 -0.6639873879 -0.6280154019
-0.0169643396 0.8563528385 0.5161124172
0.5183632221 -0.3417389461 -0.7839094736
-0.5602470976 -0.1142287803 -0.8204114671
0.1878190616 -0.2922677146 -0.9377118870
0.6930408378 -0.4576078997 0.5570362710
-0.1835688368 -0.4125851608 -0.8922308935
0.6301760970 0.2368313922 -0.7394518094
0.3802932738 0.9248657161 -0.0006581000
0.0830691559 0.1051939011 0.9909761645
-0.5320171677 -0.1423022306 0.8346902470
0.4072148695 -0.6041850591 0.6849353724
0.1435479758 -0.2032802849 -0.9685407087
0.2583222881 -0.9265105910 -0.2735831139
0.5157202759 -0.7571389691 0.4009653082
0.1967997019 -0.0102791366 0.9803898289
0.0139516346 -0.4554412335 0.8901565226
-0.1583721971 0.8909725853 -0.4255421242
0.6515654501 0.5152903567 0.5567210366
-0.2347129778 0.6684923991 0.7057107980
-0.3710009319 0.5228936853 0.7674245907
0.2874077459 -0.2425738653 -0.9265822723
-0.7227323688 0.4148846830 -0.5527464363
-0.5923438657 -0.0196562442 -0.8054454525
0.3855475867 -0.9157664715 0.1128043796
-0.0128262607 0.0351431532 0.9992999779
0.0274098024 0.1427965615 -0.9893724500
-0.1002415381 0.2860908271 -0.9529447375
-0.3121168589 -0.2251975796 -0.9229675599
-0.7061722706 0.5033736982 -0.4979313650
0.2002877441 0.5250561057 -0.8271643763
-0.0117554619 0.1824704948 0.9831410517
-0.0154920319 -0.0791392917 0.9967431813
0.0839371906 0.0367315182 -0.9957938259
-0.6566433480 -0.6707994682 -0.3447427837
0.8594434553 0.3623535948 0.3606339134
-0.8235019887 -0.1362296084 -0.5507140531
0.2949536719 -0.7485031045 -0.5939237611
-0.9485870046 -0.2177426667 0.2297190147
0.2716652992 0.9599926899 -0.0679117109
-0.7371987084 -0.6728285290 0.0619664006
-0.5680338690 0.2225212263 0.7923520856
0.6560747267 -0.1141396493 -0.7460148078
-0.1265234172 -0.9879529806 0.0891107907
0.5900694104 0.5881100052 0.5531226922
-0.9126021159 -0.3993616454 0.0875651428
0.0319211636 0.0476563804 0.9983535990
-0.9160558701 -0.3956953992 0.0653207003
0.3637712275 0.0931019599 0.9268238878
0.0710490281 0.7554701177 -0.6513193816
0.1032184822 -0.9784691151 -0.1787292248
-0.3973358423 -0.4773814368 -0.7837290299
-0.4218891721 0.5768037073 -0.6995048318
0.1897981193 0.0440524723 -0.9808343660
-0.4485494468 -0.7281748026 -0.5182324292
0.2268500717 -0.9047462751 -0.3605179922
0.6279565274 0.6286058463 -0.4588303495
0.1849287648 -0.2833149052 -0.9410281699
0.9794621198 -0.0685965880 0.1896008019
-0.4528660988 -0.1278373982 -0.8823660783
0.6270688208 0.7782630385 -0.0330353891
-0.0499603526 -0.0858034317 0.9950586587
0.0656887907 -0.6953103139 -0.7157014393
0.5496104167 -0.8252105181 0.1302151708
-0.2214666317 0.1379756869 -0.9653575715
-0.7574256406 -0.5600584895 -0.3356201533
-0.4118351016 0.0954746723 0.9062430336
0.1043956092 0.0668395003 -0.9922872759
0.5556287964 0.6921421802 -0.4606689082
0.2673888826 -0.9028952690 0.3365758736
0.1412992069 0.9777120704 -0.1552856769
-0.1284021242 -0.7175435642 0.6845758746
-0.8110781768 -0.5824552026 -0.0538342657
0.0407213849 0.0741153538 0.9964179259
0.2561200812 -0.5406749250 0.8012946584
-0.6494768081 0.5125508307 0.5616685159
0.2054198151 0.6481061381 -0.7333219848
-0.0194726295 -0.0370886472 -0.9991222392
-0.7961473683 -0.6045902500 -0.0248997488
-0.3861253944 0.9124947707 -0.1351313183
0.7620812320 -0.5613333535 0.3227027457
-0.6715453851 -0.1072410361 -0.7331617529
0.7014024907 -0.6748012123 0.2295166004
-0.3444164958 -0.2650414716 0.9006277232
-0.6198736783 -0.7712487122 -0.1446791168
0.8005736207 -0.0016219442 -0.5992322146
0.9343639151 0.0951402357 -0.3433837646
-0.7936404979 0.4119839884 0.4476650013
-0.0015005859 -0.0201798072 0.9997952408
0.9147608148 -0.1305593615 0.3823178062
0.2057751838 0.9597363040 -0.1912140175
0.7277776223 0.6773472386 0.1074264904
-0.4771973215 -0.3413424552 0.8097950634
0.4102229345 -0.8368012525 -0.3626028239
0.3642373701 -0.9053886455 -0.2181800606
0.0197214917 0.9871471747 0.1585923019
0.3294952624 -0.0786322315 -0.9408771674
0.8063037035 0.3354458922 0.4871861976
-0.5289012438 0.4596934349 -0.7134041072
0.0700041071 -0.0997845911 0.9925434300
0.3293341166 -0.4203968196 0.8454617400
0.1167090409 -0.9660876540 -0.2303337678
-0.6203344661 0.3111296559 0.7199885329
0.5025116133 0.3071401414 0.8081751123
0.3254581820 0.6426488310 -0.6935989128
-0.0765028891 -0.5711346875 -0.8172835962
0.2660146993 -0.7586073317 -0.5947697841
-0.0125005159 -0.7568985820 -0.6534127897
-0.8925238630 -0.4509863129 0.0035354681
-0.0369000893 0.0054434207 -0.9993041342
-0.6129913738 -0.7892984188 0.0353494227
0.1204137225 0.0942906345 -0.9882357065
0.3776118474 -0.1361922866 0.9158935275
-0.6139848552 -0.7219614845 -0.3190520531
-0.2662130683 0.1029796693 0.9583975115
-0.8087029711 0.4791813580 0.3411520638
-0.3183548386 0.1895424269 0.9288292982
-0.1047992282 0.8823113402 0.4588505429
-0.2916833415 -0.7319386098 0.6157813734
-0.8240774477 0.1610923932 -0.5430889440
-0.2043857318 0.5738138786 0.7930725726
0.0254576274 0.0002573005 -0.9996758690
-0.2275942280 0.1202267012 0.9663055457
0.0686595409 -0.0999202070 0.9926237050
-0.1681842888 0.0831439126 0.9822429103
0.1518920298 -0.5072449424 0.8483108980
0.4922379752 -0.1292468236 -0.8608118461
0.8385080922 -0.4118082963 0.3568166285
-0.5563563985 -0.8062202954 -0.2011874577
-0.1697624021 0.9598688034 -0.2232321819
-0.3867274492 -0.1180673060 -0.9146048280
0.0019871888 0.4767158323 -0.8790552123
0.1508641527 -0.4174534628 0.8960873918
-0.1595691214 -0.5413823117 -0.8254955409
0.6633936254 -0.1003782005 -0.7415073261
0.2485814614 -0.0082609846 -0.9685757653
-0.7335570030 -0.0093344280 0.6795638246
0.3951281229 -0.8246975075 -0.4046576177
-0.4627472085 -0.5231848812 0.7156413914
-0.2794082656 0.9436793769 -0.1772011703
-0.8341769825 -0.3477206644 0.4280643660
-0.1449136011 -0.2710020172 0.9516080889
0.0065865856 0.4451149082 0.8954492366
-0.2258279544 0.5327811586 0.8155648178
-0.5121076846 -0.2511536951 0.8213814831
0.4703576639 0.8728933778 0.1296951001
0.0446045434 -0.1083833950 -0.9931079873
0.3994549902 -0.4048232567 -0.8225289306
0.1088515689 -0.0806123982 0.9907840215
0.7042661542 0.0768312540 0.7057663512
0.0125685802 0.5290975806 0.8484679022
0.5061301316 0.3049349993 -0.8067508513
0.0001265438 -0.0232486766 -0.9997297050
-0.2123154982 -0.7993606187 -0.5620896108
-0.9432535113 -0.0688183246 -0.3248643588
0.9208206535 -0.0962191166 0.3779301599
0.1047018060 -0.4005932209 -0.9102541421
-0.9189182304 0.1954299659 -0.3426316014
-0.1702707271 0.0035734737 0.9853908411
0.3448895308 -0.1109273359 -0.9320656295
-0.0192707767 -0.1433563486 0.9894834988
-0.0578418139 0.1196767055 -0.9911265362
-0.3059939990 -0.0916540514 -0.9476113166
-0.5998301467 -0.2770477086 0.7506319752
0.0396353527 -0.5227007472 -0.8515943681
0.2751243688 0.3809593490 -0.8827097802
-0.1357009977 0.1555060846 -0.9784697731
0.1300639839 0.0965058285 -0.9867978441
-0.0293223301 -0.9888348691 0.1461020281
0.6479375158 -0.6302649509 -0.4277184439
-0.4675437428 -0.4903664921 0.7354886485
-0.3897378843 -0.3644958227 0.8457228723
0.1161907236 -0.1478206873 -0.9821653426
0.6708724929 0.5844583379 0.4564411787
0.0276186124 -0.9410421799 -0.3371599442
-0.1646685080 0.1422990013 0.9760303667
-0.8119779669 -0.3899818201 -0.4342878783
0.1752666150 0.9561685410 -0.2345705327
0.0216201130 -0.0201893434 0.9995623848
-0.0784065692 0.1213918475 0.9895031224
0.0520607085 0.3794366729 -0.9237518573
0.6285738440 0.2837664113 0.7241350333
-0.2094257823 0.2521362052 -0.9447582631
-0.0282052244 -0.0012089933 0.9996014224
-0.6771112126 -0.5740785953 -0.4603848088
0.0529509272 -0.9984688906 -0.0160023084
-0.7293939622 0.3140767433 -0.6077336976
0.0410256662 -0.6272700506 0.7777205015
-0.5492767313 -0.6040751089 0.5773979003
0.1218421884 0.2244792990 0.9668316945
0.2058271101 -0.9650233589 -0.1623733890
-0.0218510564 0.9811867433 -0.1918205048
-0.4202244233 0.6140784794 0.6680711453
0.3556851315 -0.4608690281 -0.8130730756
0.7167689084 -0.6622461826 0.2183399311
-0.6011915420 0.6932196978 0.3975112332
-0.4510334710 0.3072645003 -0.8379482889
-0.2461197503 -0.3692522650 -0.8961461004
-0.5829931775 -0.6355959423 0.5060995485
0.4785589727 0.8746285351 -0.0774999048
0.0747759118 0.6980730930 -0.7121113114
-0.0067473396 0.9096916145 -0.4152296230
-0.7154432340 -0.3096657771 0.6262971223
-0.3096147862 0.1053855841 0.9450040015
0.0110637452 -0.9157217017 -0.4016607506
0.0825928209 0.2763309986 -0.9575069739
-0.0748429327 -0.5065437823 0.8589597965
0.3444788282 0.3033515660 0.8884324197
-0.8541884454 -0.4837801753 -0.1905750290
0.2630659964 -0.5331891738 -0.8040557110
0.6503885190 0.7529294218 -0.1004592458
-0.4974233535 -0.6262314584 0.6003367121
-0.7515912746 0.5280270020 0.3953454706
-0.5420000088 -0.6070003473 -0.5811940888
0.3388618836 -0.1959362832 0.9202073662
0.6536257598 0.2607541898 -0.7104791472
-0.6268877922 -0.5893649822 -0.5095690471
0.1622404522 -0.9300413057 -0.3296986585
0.2078525556 -0.4453961316 -0.8708728961
-0.1231338975 0.7060658724 -0.6973586072
0.5872638782 0.8089676104 0.0263162063
-0.9057911398 0.4120814321 -0.0986473738
-0.4087546361 -0.5898429996 0.6964229198
-0.0480915317 0.8982043867 0.4369394515
0.7919618702 -0.5908084315 0.1540837222
0.1107778591 0.6956130423 -0.7098244581
-0.3337338083 -0.5522424431 -0.7639699138
-0.6604848389 -0.4307712683 -0.6149763344
-0.9313844897 0.0601425486 0.3590345472
-0.5398089638 -0.7492781719 0.3836515395
-0.1374074037 0.8641614782 -0.4840910503
0.0665855453 0.0497312676 -0.9965405994
0.4766799163 0.8508119739 -0.2211226862
-0.3132295076 0.8873930049 -0.3382616302
-0.4037592514 -0.5564926598 -0.7261503883
-0.0097522734 0.1467265862 -0.9891290118
-0.8748458161 -0.4806052183 -0.0605262109
-0.3229528916 -0.3172509014 0.8916576110
-0.0333418102 0.4885128963 0.8719194193
0.0277112805 0.0069956526 -0.9995914894
-0.4049671599 0.6446405558 0.6484135665
0.1099360535 -0.9524540045 -0.2841574095
0.8960982743 -0.0390430815 -0.4421351835
0.2545172556 0.0008406703 -0.9670678673
0.2396633840 -0.0483260684 0.9696525427
-0.3026241398 0.8850548957 0.3536897817
-0.1074061415 0.9622530550 0.2500659491
-0.4759732228 0.3197846750 0.8192601863
0.5758463261 0.5070145661 0.6413557815
-0.8945087304 0.1317997811 0.4271802301
0.3088615100 -0.9057648204 -0.2901631572
0.3515119349 -0.5067762977 -0.7871576358
-0.9959292132 0.0482266892 -0.0761524053
0.7809248617 0.0793171759 0.6195685159
0.1908684683 0.2574323046 0.9472580622
0.7143618317 0.5701337435 -0.4057520030
-0.6589065486 -0.0572782983 -0.7500409034
0.1853393162 0.0331747784 -0.9821144393
0.0876705691 0.9321695025 -0.3512461956
-0.5475325768 0.3474889093 0.7612223954
-0.1376703253 -0.0721843083 0.9878442727
-0.0097847204 0.0620390130 -0.9980257612
0.5209607699 0.2151404645 -0.8260232786
-0.7084428294 -0.5867604266 0.3922001519
-0.0896499571 -0.1205573441 0.9886499947
0.4996520591 -0.4975922797 0.7090484772
0.0275882298 0.4034190063 0.9145993631
-0.2448213655 -0.3473856740 0.9051992557
-0.9760436917 -0.1506054692 0.1570245351
-0.4097664689 -0.5930201111 0.6931223477
-0.1139343529 -0.8149944750 0.5681575212
-0.4466333340 0.6511715246 -0.6135913220
-0.1087018871 -0.0486661497 -0.9928824229
-0.6974328973 0.4020842956 -0.5932247238
0.5114626518 0.0645926411 -0.8568744053
0.2883303999 -0.4985500741 0.8175043756
0.0689139613 -0.0515348444 0.9962906332
0.2400223141 -0.8931643087 0.3803246066
0.2736180397 0.6861802845 0.6740102266
-0.0002148224 0.9565975523 -0.2914122112
-0.3968128244 -0.6491210808 0.6489849034
-0.2071196030 -0.1163130867 0.9713767219
0.1225710056 0.3130063723 -0.9418085578
0.9859843752 0.0997669236 0.1337212504
0.3983356303 0.0332749140 0.9166359723
0.1304924628 0.0727773358 -0.9887745833
-0.7134958932 0.4922338608 0.4986275530
-0.6370311903 -0.7680961383 0.0649583325
-0.0825056014 0.1262383976 -0.9885629432
0.0379448926 0.4328895907 -0.9006479820
0.1436849636 0.0346615378 0.9890162835
0.6683247679 0.5671953854 0.4812809984
-0.0984028141 0.0889830196 0.9911603848
-0.5927256880 -0.0179500668 -0.8052043554
-0.4650943093 -0.0466156268 -0.8840329557
-0.2390103453 0.0523660031 -0.9696039689
-0.8701314236 -0.2547394553 -0.4218757111
0.4482302755 -0.3054166504 0.8401251632
0.7298223191 -0.4344076641 0.5278724882
0.0635825245 -0.0881125718 0.9940791906
0.3747677804 -0.1727884750 -0.9108749935
-0.4676915338 0.1479083500 0.8714285680
0.4961398816 0.4564699497 -0.7385664513
0.7919192108 -0.5977671318 0.1246531977
-0.9589839247 0.2830551132 -0.0151537144
-0.7853216439 0.5670414433 -0.2484631102
-0.2960180051 -0.6924304562 -0.6579615521
-0.4509495518 0.3984941176 0.7986532038
0.0268587528 -0.1007497264 0.9945491944
0.2271492681 -0.3181268018 -0.9204338912
0.1885244265 0.0628526296 0.9800551452
-0.1905293050 0.1728736674 0.9663401466
-0.8327360152 -0.1456822033 0.5341604858
-0.7440447355 -0.0051318616 0.6681100924
0.5496951172 -0.2839841229 -0.7856133248
0.8245412611 0.0224132388 -0.5653577235
-0.4345846559 -0.4839499063 -0.7595582039
0.4111454236 0.3047409357 -0.8591230428
0.0520565988 0.7499260003 0.6594703212
0.6322434453 0.1084449276 -0.7671427009
0.2580476204 -0.2679807303 -0.9282229009
0.4407861299 0.6510374568 -0.6179464520
-0.8653712625 -0.1452903245 0.4796074433
-0.1765469802 -0.8493902709 0.4973603637
0.1800670375 -0.9331787936 -0.3110517661
0.0828989841 -0.2346524262 0.9685380722
0.2933796500 -0.4905407375 -0.8205474793
-0.9523580416 0.0989826003 0.2884728851
0.0442479497 0.9986164189 0.0284142011
-0.6344020873 -0.7095186103 -0.3067854841
-0.0996103933 0.2938596051 -0.9506441511
0.0333656640 0.0011035562 0.9994426020
-0.1786240883 0.0089391184 -0.9838767846
-0.3285728000 0.9433959052 -0.0452115165
-0.1018021841 -0.2537898942 0.9618872101
0.6408246465 0.6026379213 -0.4755747136
0.8130598966 0.0018801198 -0.5821770089
-0.9274147411 0.3597815711 0.1022698344
-0.0680648744 0.4197934407 0.9050638872
-0.8846716722 -0.0840875613 0.4585687673
0.0047421613 -0.0352991737 -0.9993655388
-0.2114164381 -0.1540609871 -0.9651778603
0.2926053245 -0.2178275085 0.9310925306
0.6393966098 0.0492737656 -0.7672965994
-0.9971883698 0.0722672360 -0.0198192272
0.0208986777 -0.0069072621 0.9997577382
-0.2640416192 0.1332611806 0.9552609492
-0.0679517880 -0.2772761050 -0.9583843259
-0.5374158111 -0.4099965279 0.7369444302
0.9418773480 -0.0862884823 -0.3246865551
0.2306660524 0.2138438768 -0.9492438931
0.1833684048 -0.8392181466 -0.5119462185
-0.5697673857 0.8095663412 0.1413062820
0.8599843125 0.3057096429 0.4086179102
0.3592576932 -0.3003861675 0.8835734606
0.0701384041 0.8668794018 0.4935592233
0.0449521362 0.0433696961 0.9980472809
0.3681395196 0.2904680595 0.8832336047
-0.3064006903 0.3492962128 0.8855002951
0.0063928117 0.5607638006 -0.8279511410
0.4992862946 0.3901608991 0.7736198477
-0.5973924341 0.3537048282 -0.7197327102
0.3594362276 0.5955512232 -0.7184179416
0.1231078376 -0.3583088636 -0.9254508191
0.5047315261 0.2760412914 -0.8179531111
-0.6823745689 -0.6381453951 0.3565605171
0.1998273765 0.2393685140 -0.9501430072
0.0808822456 0.0121064514 -0.9966501373
0.7233470646 -0.0617976848 -0.6877136543
0.3203106933 -0.2443897641 -0.9152457063
-0.1633546038 0.1830480069 0.9694373113
0.1131186661 0.1653282933 -0.9797299234
-0.7547938230 0.0664514486 0.6525875341
-0.0045376237 0.0675900093 -0.9977028619
-0.4885739063 -0.8623507650 0.1328408678
-0.0000077229 0.0001222159 0.9999999925
0.7870821339 0.2275420362 0.5733466110
-0.4682517373 0.7362233951 -0.4885851236
-0.7838950554 -0.6204866918 0.0224679176
-0.9848196324 0.1573322437 0.0733270538
-0.0614687701 0.0965698034 -0.9934263251
0.2762972145 -0.1614195970 -0.9474194229
-0.7796410570 -0.4784361849 0.4040527678
0.0052689411 0.0244747708 -0.9996865628
0.2894210525 -0.3413186383 -0.8942801807
0.0239650628 0.5478007377 -0.8362655246
-0.4761584200 0.4252660272 -0.7696895252
0.0016574872 -0.0031925456 0.9999935302
-0.2610801790 -0.9607395193 -0.0938973711
-0.4383991367 -0.7630081133 -0.4749998063
0.1137439887 -0.6183159018 -0.7776552903
-0.8704933254 -0.4751059277 0.1285135318
0.4985043453 0.7575930505 0.4213622996
-0.8901032308 0.4555779957 0.0128424448
-0.2492574806 0.0005586144 -0.9684370895
0.9721660133 -0.0002974919 -0.2342928811
0.5751630934 -0.6273998116 0.5249351316
-0.8706218058 -0.4891281653 -0.0526432257
0.7841292320 -0.6068168517 0.1300563569
0.2585526184 0.4332714384 0.8633807990
0.0736424332 0.7967049065 -0.5998650548
0.0077270953 -0.1922469861 0.9813161511
-0.8701458407 0.3209659623 0.3739345757
0.1455982948 0.1296353236 -0.9808138557
-0.6969268412 0.5599578638 0.4480403652
0.1058016037 0.1555421651 0.9821469623
-0.6994093548 -0.4783462340 -0.5310474884
-0.0762144398 -0.9916305800 -0.1042120527
-0.8309796407 -0.3462422688 0.4354183369
-0.1439573521 0.4730765272 0.8691805797
0.9581412867 -0.0128924509 0.2860053484
0.3537554000 -0.9283172233 0.1143864059
-0.5611332568 0.0077239725 -0.8276894396
0.4433610703 -0.5508074785 -0.7071365377
0.0157065954 -0.0000706023 -0.9998766413
-0.4633042031 -0.8652762792 -0.1914319098
0.0967302910 -0.9865970348 -0.1314136284
0.5234517360 -0.3746824144 -0.7652524867
0.5604709866 -0.8190352282 0.1226929835
-0.1913136015 -0.3485673497 -0.9175510387
0.2155912762 -0.3555437530 -0.9094553542
-0.4875289507 0.1053188477 0.8667314824
0.2507435565 -0.1825644008 -0.9506828643
0.0298954738 -0.0364171999 -0.9988894074
0.7297976303 -0.1598290430 0.6647180573
0.5232346302 -0.3420873462 0.7805137855
-0.7201700071 -0.0716792216 -0.6900849586
-0.3654931669 0.3435345888 0.8651004168
0.4157623792 0.0689857183 -0.9068531385
-0.3288871548 0.7272956059 0.6023905220
-0.2139019314 0.5431559891 0.8119282821
0.3792273108 -0.5771093388 0.7232782714
-0.4354337157 -0.6654367531 0.6062931690
0.4047548589 -0.4870141761 -0.7739448924
-0.1088234401 0.9784089246 -0.1757083809
-0.0092991283 0.0058367852 0.9999397273
-0.3306005812 -0.8997172527 0.2849774044
-0.4388294780 -0.3956499427 -0.8067774241
-0.0883350141 0.6853651922 0.7228218858
-0.1922792284 -0.7652796928 -0.6143091162
0.4191622281 0.3661256437 0.8308158879
-0.6292608218 0.2316432220 -0.7418707676
0.9412509200 -0.2194992866 -0.2566452197
0.7156890743 -0.6973629902 -0.0383928223
0.2932395357 -0.6731765615 0.6788548385
0.7981327140 0.2429738248 -0.5513146935
0.0262372829 -0.2724097861 0.9618235355
0.1281839777 -0.9860665979 0.1060260931
0.7447209232 -0.5613959328 0.3608675010
-0.3496804850 -0.3943716104 -0.8498203289
0.4021984121 -0.4198455884 0.8136130033
0.0193643870 0.0275789698 0.9994320492
-0.6175858179 0.3879976140 -0.6841385891
-0.0579211882 -0.0993597992 0.9933643673
0.5678955875 0.2802535043 -0.7739202640
-0.0749168140 0.1366321293 -0.9877849625
0.9766030432 0.2149328691 0.0070963303
0.1788162844 -0.3832778919 -0.9061582610
0.3967927176 -0.7593786828 0.5156544922
0.0869530664 -0.8368228029 0.5405245238
-0.5754855032 -0.8177800064 -0.0072316490
-0.9425757325 0.1153108753 -0.3134555638
-0.4505170634 0.8834360336 -0.1287445147
0.4016636054 -0.7589616446 -0.5124876292
0.0429983673 -0.5987853982 0.7997544544
-0.6123770437 -0.4016195386 -0.6809523497
-0.7856528412 -0.1123142680 -0.6083873095
0.0040788032 -0.0101394491 0.9999402757
-0.9402099036 0.3161150738 0.1267935224
-0.5030403677 0.6350305882 -0.5862478490
-0.0876412211 -0.1855123789 -0.9787257908
-0.9189493280 0.1601106946 0.3604118451
-0.3510327190 -0.4231632079 0.8352897280
-0.0212586630 -0.0002923999 0.9997739663
0.3966316874 0.7981876826 -0.4534090073
0.1540151359 -0.4445699217 -0.8824040586
-0.1425259020 -0.2028619953 -0.9687793238
0.2985455171 0.9053145425 -0.3021194355
0.4470798238 0.0536698273 0.8928825123
0.8620090730 -0.3192649945 -0.3937133746
0.5954768725 0.7795459784 0.1942044331
-0.4030446947 0.7291748591 0.5530452052
0.2909289561 0.9410371954 -0.1726538136
0.4406670962 0.3353665662 0.8326714698
-0.6514282604 0.1442478677 -0.7448716495
-0.1853613485 0.3731218346 -0.9090771513
-0.0150468722 -0.1081315341 -0.9940227175
0.6807374346 -0.6113525578 0.4035400788
-0.8896791443 0.3872056621 -0.2419561849
0.0537721677 0.0703705472 -0.9960705497
-0.2195990503 -0.8893996235 -0.4009296284
0.5933530891 -0.1139383910 -0.7968375962
-0.3978324594 -0.8145326204 0.4222155191
0.2623151555 0.0823272896 0.9614639757
-0.1150044257 0.3471399199 0.9307351170
-0.1650688458 -0.1362511148 0.9768254245
0.1194247271 0.0933183508 -0.9884479855
-0.8150671459 0.5752279992 -0.0691252235
0.3487822065 0.6969751623 -0.6265593312
-0.2378527860 -0.9674440620 -0.0864756561
-0.4066889983 -0.7295587221 -0.5498619187
-0.4626037380 0.2366679053 0.8543922309
-0.0599991961 0.0909057842 -0.9940504187
-0.0376313647 0.8482787695 0.5282111412
0.2590743988 -0.1704472314 -0.9506987942
-0.0697554962 -0.3598110545 0.9304139809
0.8633943809 0.4930203985 -0.1071495673
0.1656663653 0.1919139512 0.9673281195
0.2906213263 0.7159468752 -0.6347907660
0.0535878548 0.1633674183 0.9851088409
-0.9928978131 0.0833032055 -0.0849382638
-0.2629516539 0.1283371710 0.9562353258
-0.5476625756 0.2611085398 -0.7949138530
0.3789183151 0.6606425615 -0.6480527111
0.8978391813 -0.4402802825 -0.0061706915
0.9035993501 0.1830816655 -0.3872845443
-0.2999991191 0.2757122583 0.9132268498
-0.0442648994 0.0662193848 -0.9968227584
-0.0558693909 0.1556388962 -0.9862328048
0.8999579870 0.3411692821 -0.2714390218
-0.4303533330 0.8872604544 0.1660267897
0.6752159565 -0.7328958991 -0.0833487442
-0.9492155304 -0.3016914174 0.0892869840
0.0641349016 0.3375559753 -0.9391180319
-0.3840371028 -0.7736965567 0.5038939788
0.6998843624 -0.4467577715 -0.5572875137
-0.2935614127 0.9241662334 0.2444145452
-0.3337855448 -0.1020158398 0.9371125751
0.0705315754 -0.4869021875 -0.8706041331
0.2020503259 0.4271566519 -0.8813131456
-0.3639590036 -0.0292824369 -0.9309545545
0.1993402141 0.9794829290 -0.0296086295
-0.6126110812 -0.2198391338 -0.7591959026
0.1589337339 0.1006269427 0.9821477927
-0.0473688276 0.0588284862 0.9971436222
0.8212559765 0.2679101142 -0.5037487387
-0.7150260500 -0.6121907795 -0.3375799125
-0.0312191959 -0.0385738557 -0.9987679508
-0.9276893349 -0.3489835613 -0.1326761913
0.0586948020 0.9971733628 0.0469063397
0.1055156946 -0.9907952292 0.0848012501
0.3206071756 0.0738729454 0.9443271821
-0.0012726751 0.6883391640 -0.7253878794
-0.2551626907 -0.0550931981 -0.9653272713
-0.0606491778 -0.4785599630 -0.8759577838
-0.0142369137 -0.0418822902 -0.9990211129
0.6825602551 0.5152729154 0.5182714741
-0.3496870465 0.3252281510 -0.8786043588
0.2497401142 -0.9646393921 0.0842657610
0.1491995717 -0.3590902008 -0.9213000138
0.4578789729 -0.3576264084 0.8139104362
-0.5450643490 0.8155185208 0.1945106618
0.8608283417 0.5027088319 0.0791100275
0.9237935475 -0.2251261312 -0.3097155254
0.0055562138 -0.6912320685 -0.7226114834
0.5486702457 -0.7198015747 0.4252606900
0.0582990392 0.0286649427 -0.9978875403
-0.0405842231 -0.3025582471 -0.9522664690
0.1525685257 0.9503139806 -0.2713414515
0.4921853272 -0.3277862991 -0.8064178482
-0.4703476467 -0.8405117832 -0.2689108283
0.0732461452 -0.5860215373 0.8069781658
0.0777273235 -0.3431911896 0.9360439469
-0.6605577182 0.6900315150 -0.2958378090
0.6507407600 -0.4028035003 0.6436503736
-0.3477374736 -0.0555388610 -0.9359455563
0.3031991709 -0.5980007390 -0.7419335407
-0.1780317380 -0.1001494816 0.9789151044
-0.7406603338 0.6716175342 -0.0187658679
-0.6069269838 -0.6439462403 0.4658034736
-0.9584453061 -0.1535743699 -0.2404111230
-0.2686410522 -0.1548025459 -0.9507198099
-0.2465318873 0.1854305689 0.9512294848
0.0910013640 -0.1212446318 -0.9884424571
-0.2959215450 -0.8347665473 0.4643223564
-0.8663629431 -0.2640736634 0.4238871914
-0.1567564301 -0.7087518176 0.6878214031
-0.3400415175 0.2752458772 0.8992282655
-0.1423425163 -0.9061682744 0.3982432253
0.0926198191 0.1037504423 -0.9902814826
-0.2257214613 0.1229849272 -0.9663977078
0.8168583868 -0.5120349524 -0.2656361863
-0.1987372725 -0.9397388611 -0.2781984353
-0.7607977639 -0.6231878829 0.1811729149
0.3456029298 -0.6798877904 -0.6467698257
-0.2884197708 0.3242700276 -0.9009234069
-0.6595971881 -0.4937147295 -0.5667250792
-0.2085975738 0.2442493430 -0.9470107236
0.7488440568 0.2694990731 -0.6054773556
0.0356003906 0.0967917397 -0.9946677693
0.2420874912 -0.4865157760 0.8394617599
0.2307167001 0.5470114773 -0.8047038262
0.0165681819 -0.1152205517 0.9932017518
0.0928885927 0.0415196423 0.9948104486
0.1155236615 0.2895468596 0.9501667747
-0.0844378892 0.9722120101 0.2183438806
-0.7244523830 -0.3613649328 -0.5870128876
-0.0260779302 0.9967755596 -0.0758842897
0.8109829063 0.4536623363 -0.3694552886
-0.1453516037 0.1087317645 0.9833871642
0.1171488619 0.1756680645 -0.9774542830
0.2272193066 0.9606945447 0.1594909979
0.7749149369 0.3210131382 0.5444790222
0.3445755861 0.7839459358 -0.5164266019
0.3182715512 -0.2103114766 -0.9243767103
-0.0329062401 0.0504450370 -0.9981845909
0.9505303866 -0.0518172638 -0.3062792115
-0.5396790960 -0.7810779865 -0.3141077082
-0.0585522898 -0.5614991497 0.8254031344
-0.6503592448 -0.4518619835 -0.6106173929
-0.3167191136 -0.0450986957 -0.9474466268
-0.2660399107 -0.9610734339 -0.0745695693
-0.5383076829 -0.6867952002 -0.4884026940
-0.1199225163 -0.6527734185 0.7480009720
0.7343493584 -0.4154724753 -0.5367621839
0.2001347070 -0.7485097632 0.6322018930
0.1651102032 0.7812965234 0.6019255464
0.0772683030 -0.0936737651 0.9926000378
0.5187007639 0.0392002798 -0.8540567051
0.6682526381 0.5447799869 -0.5066094922
0.0565010203 -0.3776139371 -0.9242377125
0.6190338228 -0.0395869121 0.7843659877
0.2496313540 -0.2483688895 0.9359471576
-0.0023627732 -0.0151305734 0.9998827346
0.2392263822 -0.1676742493 0.9563765389
-0.0454101677 0.3141840891 -0.9482754214
0.8659927437 0.4708198112 0.1684792965
0.6835864072 -0.5600897214 0.4679841107
-0.7623941625 0.6221133699 0.1781294359
0.7274647780 -0.0524458968 0.6841377234
-0.1459932879 -0.6980909050 -0.7009672233
0.3703270100 -0.0409271872 0.9279993917
0.5435275767 0.8365416543 0.0691074088
-0.0363691480 0.8294653573 -0.5573728609
0.2084118895 0.2437330953 -0.9471845979
-0.9539066418 -0.1223527864 0.2740290394
0.5933162820 0.6003869353 0.5362008182
-0.9354607872 -0.2039106287 -0.2886755464
-0.4293137224 -0.4707338960 0.7707783902
0.1275084774 0.9793920570 -0.1566294570
0.6873477293 0.3597672471 -0.6309680079
0.9163748457 0.3685032869 0.1564048263
0.2703000097 -0.3723583291 0.8878553821
-0.2220800414 0.7060588286 0.6724294652
-0.4866317075 -0.0587991320 -0.8716262062
0.4617722494 -0.8353562338 -0.2982387506
0.4994433199 -0.8595068765 -0.1086475931
-0.4076942738 -0.1268954014 0.9042582243
-0.9006725466 -0.3990230456 -0.1719580557
-0.6065342460 -0.5133580891 0.6071076352
-0.1049791956 0.3537770180 -0.9294198137
-0.4610300004 -0.7983464177 0.3874201029
-0.5603608587 -0.6589490757 0.5017786600
0.1489189573 0.7344444335 -0.6621287777
0.2425933646 0.7668904867 0.5941611237
0.6644600239 -0.2307602714 -0.7108041740
0.4972516047 0.7777774180 -0.3844517261
0.2684073216 -0.6494953876 0.7114163698
-0.4540800855 -0.4082340724 0.7919319529
-0.4616519710 -0.0592633645 -0.8850792684
-0.1661036407 -0.9463836500 0.2770696076
0.7828313512 0.1647936599 -0.6000151042
-0.0843967023 0.0454790197 -0.9953938193
0.9349285462 0.2420111602 0.2594979995
-0.1686097545 0.0630092686 0.9836669064
-0.0882449942 -0.3154941689 -0.9448154584
0.5281270474 0.8269026645 0.1931678164
0.0017199980 -0.0574664804 0.9983459547
0.2961296507 0.3993731478 -0.8676452724
-0.1104856163 -0.8183961926 0.5639331525
0.2001587025 -0.0971068084 -0.9749393630
0.0742403220 0.5122289651 0.8556341870
-0.4179240305 -0.1518033783 0.8957093497
-0.7958798816 0.3597081687 0.4870166808
0.0041112652 0.0355714671 -0.9993586785
-0.8708780810 -0.3442596500 0.3507943293
0.3808202275 0.4359725328 -0.8154163998
-0.7674163221 -0.4042139457 -0.4976778825
0.3014069256 -0.0606862891 0.9515624202
-0.0626592634 -0.9975160730 0.0321791995
0.0619046541 0.9968101143 -0.0503727091
-0.0308692403 -0.0212364448 -0.9992978052
-0.1454296545 0.2928606256 -0.9450306183
0.3844456037 0.5102353399 -0.7693253380
0.4558368787 -0.7840850059 0.4212166230
-0.2779622727 -0.8919476922 -0.3566038269
0.0594897440 -0.6947921465 -0.7167460104
0.0911931259 0.9929116401 -0.0762252493
-0.3505915506 -0.7920616151 0.4997238863
-0.4423858065 -0.6179224564 -0.6499743349
-0.6952098071 -0.3339473307 0.6365237658
-0.5329016548 -0.4553903593 0.7131868247
-0.4048155056 -0.5071154709 0.7608930974
0.0218997398 0.1666049156 -0.9857805047
0.3676900479 -0.6416667439 -0.6731031262
0.0226376184 0.0245730587 -0.9994416957
0.3752813726 0.7685836461 0.5181149200
0.0761122550 -0.9959676474 -0.0474907354
-0.0188503860 0.1573248534 -0.9873669801
-0.8741673171 0.4770599266 0.0908037889
0.8949434977 0.3296907105 -0.3006329511
0.5512323971 -0.0053689075 -0.8343344768
0.0495456659 0.5357072856 -0.8429489493
0.1624118040 -0.2732827914 0.9481238958
0.9642237292 -0.2635990482 0.0280738624
0.1500920345 0.9116325429 -0.3826205535
-0.0367847679 -0.0557356423 0.9977677180
-0.2342434486 -0.7386160484 -0.6321205105
-0.0743618053 0.0020986614 -0.9972291199
-0.0540208940 -0.0833852428 -0.9950520812
0.5219743443 -0.5297069651 -0.6685456717
-0.5198860557 0.7599242691 0.3901712371
-0.5030068792 0.7640207588 -0.4040499468
-0.6568377286 0.0625899811 0.7514297656
0.3689042166 -0.4611142021 0.8070212956
-0.8429910803 0.1216822636 0.5239842223
0.8936900988 0.3374252476 0.2957401047
-0.2676317576 -0.9612555806 0.0660374981
-0.0913298331 -0.0077107777 -0.9957908442
-0.9890378477 0.1240738367 -0.0800613440
-0.8640673564 0.1106671515 -0.4910604700
0.3542415831 -0.8712492489 0.3397611618
0.0202034060 -0.1221737723 -0.9923030745
-0.0955974359 -0.9455284530 0.3111865595
0.1719832781 0.1300385491 0.9764792511
0.0324668132 0.0847808278 -0.9958705324
0.5916689823 0.5925840452 -0.5466003702
-0.0644957297 0.1464617050 0.9871115792
-0.7742280556 -0.3770114777 -0.5083633185
-0.7933755691 0.2315741602 0.5629641327
0.6084074352 -0.0745708449 -0.7901136512
-0.4483309445 0.6481578941 0.6155409885
-0.4388579649 0.8929166684 -0.1005162173
0.1487565695 -0.1055210672 -0.9832277393
0.1848988245 -0.9808323517 -0.0614843280
-0.7970614026 0.5990981791 0.0759900804
-0.0919265678 -0.9214494447 -0.3774657958
0.4840235465 0.2683105397 -0.8329049530
-0.0406097561 0.0876511230 0.9953231276
0.3645211628 0.8866298671 -0.2846257204
-0.2183579613 0.1675863950 -0.9613712087
0.2220481629 -0.5000028332 -0.8370733421
0.7101671818 -0.0249717551 -0.7035900692
0.1931065793 -0.1202249107 -0.9737842779
-0.2862252873 -0.0228244466 -0.9578904580
0.4413075366 -0.4527595535 -0.7747621860
-0.2425808709 0.2527122045 0.9366381707
0.5961917292 -0.1979538713 -0.7780550667
-0.2027150686 0.0619937025 -0.9772734427
-0.2103046006 -0.5265399011 0.8237279329
0.2307007429 -0.4383642398 0.8686851907
0.2190812932 -0.1987876275 0.9552417841
0.1259574665 0.0674534279 0.9897397394
-0.1411811853 0.0808712689 0.9866750786
-0.2779698587 -0.3695505233 0.8866595561
-0.0282190565 -0.0117687100 0.9995324819
-0.0109709163 0.0046443310 -0.9999290321
-0.2687671502 -0.2224364102 -0.9371692816
-0.4428992930 -0.3955218584 -0.8046133704
-0.4452853796 0.8806535978 -0.1617719736
-0.3679724425 -0.3553846803 0.8592426960
0.4811634861 -0.8702923530 -0.1052279430
0.2611798664 -0.2166531004 -0.9406628044
0.4365895050 0.1074285800 -0.8932237706
-0.0063910916 0.1000102643 0.9949658793
-0.8032837293 -0.5309737796 -0.2698186345
-0.0160481259 -0.0163733417 0.9997371511
-0.4106152044 -0.4200270617 -0.8093036645
0.0484236402 0.0820455502 -0.9954514949
0.1711442468 -0.7704660367 -0.6140779536
0.8513060641 -0.2737524334 -0.4475908739
-0.3127574793 0.5455716537 0.7775180576
0.2406475059 0.0366709356 0.9699195948
0.2735356971 -0.3474470198 0.8969162675
0.3313722163 0.0985776453 0.9383362415
0.9350966951 0.2554836678 0.2456059168
0.1558748507 -0.4964268223 -0.8539692272
0.9326368240 -0.2894512302 0.2154217721
-0.8996265514 0.1258513488 -0.4181309675
-0.9667066467 0.1560009525 -0.2028348144
-0.5067300228 0.6658301906 0.5476265528
-0.1458090509 -0.6143978674 -0.7754063329
-0.4755252786 0.2955188898 0.8285796855
-0.2288423990 0.0556579106 -0.9718710580
0.4920477153 -0.8208382157 -0.2900235670
-0.0645004064 0.9630961009 -0.2613151316
0.7692390504 -0.5503412633 0.3246471581
0.1058064968 -0.1149084904 0.9877251764
-0.0134526828 -0.2415221436 -0.9703020558
-0.0034799025 0.4577077157 0.8890959101
0.1439990901 0.0391444296 0.9888033049
-0.3276145588 -0.3622637388 -0.8726016757
0.2315298922 0.5651210019 -0.7918536242
0.7223313321 -0.6830884969 0.1078311275
-0.0358061599 -0.9669168938 -0.2525661089
-0.6192409264 0.4752301564 0.6250575762
-0.9862004309 -0.1644871529 -0.0187799517
-0.4045766928 0.1565303107 -0.9010083027
0.3723157605 -0.4645256404 -0.8034904504
-0.2880007543 0.3359050049 0.8967850318
0.7458174136 0.0315019873 0.6654051476
-0.1479267359 -0.1876260691 0.9710376610
0.1646994883 -0.7091953495 -0.6855042194
0.5315554860 -0.0176009638 -0.8468405820
0.5601332097 0.5007864521 -0.6598967471
0.7884318188 -0.2771280825 0.5491587139
0.8734149331 0.3024166550 -0.3816942774
0.7296588334 0.3780784713 0.5697847456
0.2143301914 0.3366807514 -0.9169016527
-0.0721211877 -0.9784086975 0.1936877769
-0.7880493862 -0.5953136103 -0.1567796869
-0.3280852053 0.8722202185 0.3627561004
0.8912505521 -0.4336683450 0.1326808948
-0.3602061604 -0.2782543437 -0.8904077954
0.3617794999 -0.0510375572 0.9308655978
